0.89631 0.89009 0.47992
0.8657 0.30155 0.28398
0.80096 0.25006 0.11821
0.55498 0.89662 0.53566
0.41887 0.11973 0.54712
0.12712 0.6652 0.82268
0.65462 0.32747 0.69185
0.86396 0.32609 0.70809
0.2746 0.82549 0.1835
0.84016 0.55021 0.3215
0.070755 0.64478 0.16178
0.37879 0.84513 0.74187
0.26817 0.595 0.56672
0.15292 0.33099 0.74459
0.631 0.21141 0.28777
0.31637 0.62569 0.094028
0.95911 0.26306 0.58196
0.49867 0.97565 0.085196
0.73861 0.16136 0.77498
0.012756 0.79454 0.71154
0.60535 0.92443 0.020961
0.57645 0.46631 0.20974
0.80738 0.61357 0.67739
0.65497 0.41049 0.45313
0.87823 0.96922 0.49322
0.90237 0.6532 0.35268
0.15223 0.77141 0.6119
0.19258 0.41517 0.45687
0.79098 0.14907 0.29488
0.060705 0.49432 0.83774
0.38983 0.84869 0.34772
0.29997 0.67779 0.97017
0.73418 0.44593 0.40247
0.10421 0.49708 0.5244
0.79258 0.15613 0.51036
0.78273 0.69787 0.5726
0.5324 0.20469 0.89341
0.25335 0.67737 0.3749
0.070955 0.12451 0.96801
0.6258 0.59547 0.35329
0.024681 0.77292 0.18394
0.062042 0.57958 0.56506
0.12961 0.68393 0.69337
0.45061 0.4273 0.51962
0.67234 0.27681 0.70781
0.85611 0.97804 0.90565
0.49845 0.96492 0.87692
0.048785 0.72805 0.26761
0.31383 0.72478 0.92046
0.64163 0.64496 0.18937
0.78639 0.08585 0.23833
0.28915 0.5279 0.53843
0.49787 0.85154 0.13374
0.81843 0.20999 0.22731
0.59513 0.82674 0.25653
0.53642 0.20641 0.31739
0.33087 0.4755 0.13298
0.41169 0.29993 0.164
0.79401 0.34497 0.27122
0.34321 0.92795 0.34523
0.46261 0.030121 0.20298
0.36782 0.72004 0.07152
0.67957 0.37622 0.87348
0.56778 0.58803 0.15187
0.65178 0.32995 0.79429
0.49111 0.86493 0.94637
0.39846 0.85495 0.35143
0.47748 0.5481 0.058925
0.066588 0.043414 0.92139
0.41103 0.53358 0.77715
0.96909 0.82527 0.24919
0.78072 0.56627 0.5317
0.72902 0.21924 0.073598
0.76565 0.32334 0.85159
0.75658 0.065043 0.75132
0.84327 0.37382 0.17641
0.77016 0.25853 0.82621
0.97866 0.2606 0.033693
0.11136 0.47249 0.017944
0.39608 0.094833 0.71489
0.49206 0.063145 0.92436
0.25809 0.81648 0.55488
0.036966 0.068448 0.82884
0.97438 0.29764 0.35681
0.72643 0.78757 0.30678
0.14796 0.45637 0.67383
0.14789 0.91018 0.056167
0.70482 0.55067 0.32681
0.38099 0.42922 0.88328
0.076411 0.39905 0.41109
0.41084 0.063297 0.50217
0.14299 0.71619 0.35724
0.79892 0.71992 0.98884
0.93025 0.74117 0.46489
0.0047195 0.68937 0.94682
0.65004 0.26042 0.10023
0.67853 0.00987 0.31957
0.25362 0.3501 0.39433
0.84318 0.89616 0.83857
0.29396 0.74324 0.16026
0.02686 0.29399 0.23317
0.093307 0.18434 0.16383
0.79788 0.16296 0.56859
0.7114 0.07579 0.15285
0.78341 0.43698 0.67063
0.62392 0.27162 0.89663
0.82542 0.23711 0.67485
0.035023 0.14655 0.65795
0.40547 0.47082 0.41406
0.24967 0.72859 0.65556
0.4809 0.3914 0.39803
0.88084 0.15602 0.58553
0.28068 0.14159 0.81176
0.59914 0.90452 0.68186
0.026226 0.35242 0.96845
0.1552 0.15946 0.29008
0.83391 0.87188 0.015749
0.19489 0.80371 0.41013
0.82979 0.73415 0.85722
0.33807 0.49217 0.98282
0.67112 0.40184 0.81617
0.052366 0.8626 0.18944
0.73431 0.18084 0.039731
0.49948 0.92557 0.60591
0.9433 0.82204 0.73054
0.28977 0.68658 0.048225
0.37656 0.46916 0.79222
0.11376 0.88794 0.39528
0.96485 0.98236 0.059785
0.43251 0.032336 0.62074
0.084563 0.82477 0.16519
0.71668 0.65932 0.32933
0.50679 0.44828 0.26994
0.32809 0.57372 0.54109
0.75352 0.79792 0.85373
0.83601 0.63276 0.43221
0.25372 0.7897 0.57802
0.53443 0.059559 0.13648
0.43517 0.38941 0.58154
0.1577 0.42023 0.6712
0.60048 0.66407 0.83694
0.93745 0.63447 0.6344
0.10776 0.8853 0.21182
0.89998 0.61151 0.9067
0.55046 0.61535 0.40515
0.42736 0.87716 0.88864
0.15238 0.76686 0.57505
0.24755 0.75009 0.01671
0.44737 0.11562 0.5404
0.53278 0.20409 0.85265
0.35465 0.11626 0.22258
0.77311 0.84146 0.63701
0.88168 0.38157 0.71248
0.73409 0.45405 0.33373
0.40643 0.073887 0.050785
0.60418 0.025165 0.45934
0.64111 0.96111 0.86561
0.12747 0.15839 0.77586
0.49619 0.93364 0.34202
0.31047 0.23677 0.7482
0.57857 0.075554 0.62479
0.94361 0.67256 0.72809
0.42694 0.084327 0.67012
0.033128 0.062168 0.48518
0.92943 0.69517 0.574
0.92498 0.002059 0.80039
0.35831 0.15686 0.44962
0.25999 0.27455 0.27602
0.78686 0.31523 0.72584
0.51158 0.71404 0.39708
0.56253 0.57179 0.38884
0.68479 0.51519 0.60593
0.092397 0.57733 0.018593
0.87258 0.0049427 0.69082
0.94294 0.35223 0.464
0.096594 0.54473 0.7691
0.84588 0.092064 0.33495
0.9094 0.27232 0.16208
0.011341 0.59073 0.58471
0.52368 0.0046273 0.2466
0.65035 0.030751 0.098396
0.38515 0.37671 0.40982
0.6493 0.16552 0.82319
0.76285 0.30622 0.16399
0.57569 0.26997 0.20568
0.63192 0.30721 0.097546
0.2782 0.58402 0.77013
0.83984 0.53852 0.98472
0.42683 0.79067 0.44139
0.63162 0.37272 0.13063
0.83347 0.75201 0.245
0.27019 0.65258 0.86636
0.4008 0.55194 0.065721
0.55425 0.85092 0.060339
0.44387 0.42525 0.26002
0.090384 0.5744 0.44696
0.74438 0.76825 0.67516
0.032615 0.53951 0.26149
0.42974 0.98427 0.69618
0.037262 0.10559 0.55555
0.9758 0.301 0.043001
0.52234 0.37985 0.1666
0.90963 0.47272 0.58668
0.38325 0.22257 0.50939
0.88445 0.32074 0.99937
0.25502 0.22685 0.97855
0.90905 0.021758 0.76478
0.89456 0.015473 0.23424
0.39852 0.78385 0.73691
0.62502 0.018647 0.66668
0.5676 0.90273 0.62223
0.89451 0.1966 0.85545
0.21417 0.60903 0.5483
0.0038592 0.52287 0.90508
0.88058 0.70673 0.017759
0.23512 0.3532 0.58587
0.24486 0.75889 0.28112
0.64092 0.50558 0.74389
0.30452 0.76577 0.21592
0.82562 0.36253 0.050962
0.88369 0.92502 0.28183
0.94537 0.9011 0.13353
0.3908 0.55171 0.45686
0.80132 0.52103 0.22297
0.15711 0.17902 0.55327
0.62517 0.60892 0.071151
0.69899 0.72796 0.097494
0.085869 0.87594 0.32432
0.53118 0.47332 0.62882
0.88857 0.75221 0.75173
0.26367 0.18105 0.44605
0.23479 0.021336 0.23143
0.83966 0.12927 0.56774
0.49554 0.86005 0.21289
0.15237 0.79671 0.27184
0.23077 0.18759 0.17591
0.65795 0.17122 0.77561
0.56295 0.67557 0.081863
0.29183 0.39989 0.54873
0.6223 0.93553 0.73206
0.71591 0.47624 0.65325
0.28073 0.40224 0.65303
0.41227 0.19002 0.68867
0.36221 0.33707 0.11079
0.78139 0.44098 0.35785
0.13549 0.13798 0.60094
0.90207 0.98034 0.34791
0.28964 0.43965 0.81206
0.49956 0.80384 0.11723
0.78359 0.81767 0.41594
0.67706 0.23153 0.79478
0.14981 0.64126 0.87672
0.69662 0.25781 0.35321
0.12901 0.12411 0.81507
0.94595 0.40706 0.12316
0.88641 0.067692 0.34803
0.515 0.10976 0.46059
0.67941 0.52956 0.45537
0.97679 0.2115 0.38611
0.12546 0.025967 0.062243
0.75224 0.99412 0.42074
0.82705 0.74464 0.99117
0.78143 0.98224 0.80854
0.19088 0.95138 0.54967
0.42864 0.47161 0.80674
0.014457 0.98754 0.45563
0.32529 0.85292 0.5872
0.1347 0.30908 0.99879
0.45052 0.95174 0.73366
0.57227 0.11365 0.46672
0.79202 0.11727 0.61642
0.41974 0.00069541 0.12908
0.53254 0.30316 0.89675
0.9257 0.36918 0.16653
0.89908 0.12034 0.22241
0.54483 0.71191 0.62833
0.90112 0.95751 0.49423
0.051827 0.32229 0.46108
0.8086 0.78898 0.10364
0.3349 0.67149 0.088081
0.22868 0.10961 0.90746
0.8224 0.72396 0.39857
0.34823 0.8826 0.024451
0.16547 0.00049313 0.46689
0.028134 0.10194 0.85829
0.95537 0.37038 0.86357
0.68029 0.91469 0.50546
0.86056 0.99899 0.48788
0.93909 0.17049 0.23682
0.68019 0.17262 0.97052
0.91742 0.10307 0.14604
0.25669 0.60615 0.12172
0.88562 0.41189 0.30936
0.92004 0.25578 0.87965
0.30006 0.20168 0.27996
0.073391 0.18769 0.6013
0.7674 0.88377 0.26937
0.084952 0.63141 0.91362
0.72876 0.62243 0.60538
0.44789 0.65827 0.16223
0.65125 0.17708 0.92008
0.1695 0.62585 0.10689
0.53145 0.87646 0.14354
0.6338 0.1782 0.63957
0.014096 0.64557 0.26501
0.47037 0.88412 0.0099642
0.88633 0.25052 0.85261
0.11403 0.58622 0.30822
0.44254 0.48687 0.90853
0.65955 0.83909 0.45835
0.29477 0.051676 0.32864
0.95037 0.73947 0.99129
0.69429 0.55452 0.81354
0.20681 0.42947 0.29506
0.55476 0.77972 0.87588
0.87928 0.39667 0.31691
0.55786 0.35723 0.95978
0.75233 0.65947 0.92859
0.8949 0.39417 0.49614
0.84184 0.17848 0.49176
0.13086 0.054295 0.9922
0.18915 0.24712 0.39486
0.15364 0.90181 0.94727
0.028902 0.98244 0.091402
0.0090849 0.48411 0.38275
0.59645 0.14475 0.73052
0.60905 0.51167 0.74619
0.91892 0.99353 0.17341
0.73357 0.76257 0.36196
0.30115 0.96602 0.66136
0.49557 0.92988 0.62777
0.25816 0.23649 0.72474
0.73285 0.097522 0.6726
0.11676 0.40977 0.042894
0.74604 0.13117 0.29976
0.80979 0.75457 0.48737
0.74523 0.3481 0.34393
0.33714 0.44978 0.075561
0.58432 0.19934 0.3362
0.46895 0.73652 0.12245
0.087265 0.20337 0.14274
0.82872 0.76816 0.37643
0.68594 0.24128 0.75863
0.26733 0.61373 0.86453
0.96948 0.34577 0.85662
0.18377 0.72263 0.13303
0.29994 0.11722 0.86323
0.41118 0.18079 0.5943
0.23649 0.19386 0.59026
0.19506 0.36055 0.91798
0.70538 0.40439 0.05594
0.18055 0.22578 0.70468
0.52233 0.66906 0.49798
0.29617 0.95721 0.36581
0.46278 0.43167 0.99821
0.92523 0.80381 0.955
0.21589 0.79819 0.51332
0.0010089 0.99524 0.67028
0.90661 0.2118 0.0018905
0.68004 0.32902 0.49295
0.51495 0.76234 0.53126
0.52207 0.75676 0.30587
0.10292 0.96128 0.85984
0.99688 0.56989 0.066211
0.35897 0.60851 0.53442
0.62524 0.36509 0.0063092
0.39337 0.34355 0.66201
0.0076624 0.59999 0.53883
0.54528 0.52563 0.44559
0.50911 0.48497 0.78413
0.24678 0.65565 0.16057
0.045395 0.038252 0.15457
0.84173 0.18992 0.81234
0.04825 0.92875 0.97788
0.31632 0.58298 0.28514
0.78342 0.01541 0.65731
0.9724 0.29368 0.80674
0.58646 0.04526 0.82003
0.77804 0.79473 0.30514
0.7277 0.71137 0.074208
0.65099 0.53636 0.6176
0.66462 0.58679 0.13616
0.93878 0.21095 0.80916
0.53508 0.41392 0.97788
0.39844 0.51582 0.90043
0.67046 0.83833 0.18276
0.44053 0.65991 0.92203
0.13287 0.48118 0.13656
0.4392 0.85276 0.043354
0.54764 0.48153 0.67279
0.39514 0.2723 0.1277
0.39827 0.7312 0.21927
0.75135 0.96947 0.65885
0.52235 0.37562 0.32259
0.49043 0.2386 0.50248
0.088679 0.2427 0.53442
0.25085 0.018939 0.45909
0.44756 0.98265 0.51868
0.63796 0.80262 0.57217
0.70945 0.56349 0.38424
0.99262 0.38883 0.85608
0.93219 0.65253 0.35563
0.092229 0.99371 0.85859
0.95354 0.71377 0.42006
0.1628 0.10237 0.2304
0.97046 0.44729 0.72332
0.59701 0.69279 0.093562
0.24023 0.33296 0.15323
0.070295 0.92175 0.90507
0.30004 0.63249 0.57373
0.81354 0.93219 0.68235
0.07671 0.42592 0.078246
0.35447 0.30049 0.35207
0.13201 0.88903 0.35332
0.15818 0.017374 0.11506
0.062147 0.14806 0.49244
0.70184 0.95916 0.43329
0.086482 0.71447 0.2323
0.61679 0.30647 0.19939
0.17377 0.8281 0.25713
0.6514 0.80789 0.09397
0.4987 0.90926 0.26959
0.28451 0.64281 0.19645
0.83056 0.62869 0.4175
0.81836 0.11847 0.017978
0.93817 0.91897 0.19196
0.0003261 0.62398 0.26542
0.64039 0.25758 0.59661
0.0073557 0.9513 0.11649
0.10642 0.046206 0.15374
0.10679 0.020927 0.42094
0.36711 0.08805 0.044102
0.23961 0.51784 0.47771
0.34614 0.87866 0.95113
0.24962 0.40218 0.89156
0.38706 0.56132 0.91117
0.42104 0.59816 0.21506
0.64008 0.075051 0.62527
0.78755 0.39149 0.014954
0.26999 0.35499 0.78393
0.84398 0.24479 0.0084699
0.74047 0.10803 0.76114
0.8261 0.11229 0.33121
0.18219 0.2672 0.10455
0.065436 0.26639 0.9088
0.61035 0.93608 0.77222
0.70155 0.18618 0.1243
0.11162 0.50744 0.95968
0.095824 0.14759 0.3399
0.59783 0.9207 0.6083
0.81223 0.92946 0.57559
0.81458 0.13675 0.98599
0.089437 0.87157 0.98656
0.73128 0.012355 0.45939
0.90386 0.72204 0.37622
0.45223 0.87859 0.031795
0.070688 0.38745 0.71912
0.24128 0.24643 0.25188
0.73187 0.11172 0.40676
0.040492 0.84678 0.82575
0.42452 0.65966 0.56693
0.54022 0.77966 0.57615
0.95383 0.35856 0.30417
0.20891 0.18414 0.28953
0.11633 0.01018 0.27141
0.64622 0.085915 0.70946
0.10841 0.32947 0.24039
0.9835 0.30083 0.55998
0.24834 0.50657 0.32603
0.60636 0.38661 0.27817
0.8167 0.9373 0.26539
0.83005 0.15954 0.50247
0.48904 0.77971 0.5679
0.76073 0.17746 0.12611
0.91511 0.80529 0.048868
0.90097 0.56238 0.81317
0.21424 0.47007 0.20145
0.54706 0.35961 0.71891
0.78471 0.37177 0.68499
0.19444 0.38287 0.1639
0.74689 0.25631 0.84676
0.47556 0.97204 0.47599
0.58326 0.66056 0.70903
0.26055 0.50529 0.29709
0.084822 0.19802 0.2269
0.29813 0.10438 0.90253
0.91713 0.88841 0.62006
0.47052 0.36296 0.23226
0.26947 0.45371 0.6
0.76297 0.064794 0.13432
0.77217 0.85076 0.05369
0.0213 0.27943 0.20599
0.87999 0.91192 0.22954
0.79817 0.05977 0.64069
0.32417 0.61597 0.21968
0.66904 0.56394 0.66906
0.29629 0.66827 0.66113
0.92995 0.33544 0.30338
0.28196 0.037794 0.56684
0.16888 0.28579 0.65353
0.74517 0.93125 0.6657
0.47713 0.79985 0.50343
0.65344 0.33107 0.031432
0.96658 0.73742 0.76335
0.31303 0.56744 0.78684
0.076439 0.016064 0.82393
0.79142 0.42551 0.38285
0.36538 0.029378 0.35361
0.5851 0.78418 0.33052
0.18334 0.98081 0.70245
0.076919 0.68994 0.38389
0.15366 0.77969 0.031135
0.82688 0.59798 0.45664
0.30096 0.28461 0.27942
0.38388 0.74625 0.33628
0.65075 0.69387 0.052184
0.81737 0.44252 0.53999
0.76627 0.41913 0.38094
0.37418 0.15077 0.99844
0.18986 0.54029 0.52962
0.6465 0.19636 0.88644
0.0036053 0.74918 0.81557
0.28289 0.71566 0.32469
0.6386 0.7045 0.26616
0.59207 0.73629 0.27781
0.32529 0.65669 0.75444
0.98895 0.8911 0.97893
0.12324 0.49108 0.64246
0.73588 0.34178 0.85224
0.15662 0.96271 0.85524
0.43465 0.12494 0.55886
0.83224 0.20861 0.25309
0.35991 0.15497 0.37663
0.076238 0.8076 0.54504
0.55693 0.067367 0.044818
0.27393 0.4906 0.33469
0.13205 0.59842 0.80258
0.69965 0.36502 0.49356
0.4859 0.68856 0.2588
0.18272 0.85691 0.28468
0.10121 0.90064 0.81692
0.20158 0.9515 0.59134
0.13475 0.90005 0.39387
0.32379 0.0065369 0.11091
0.95055 0.041932 0.99649
0.53213 0.87089 0.0053003
0.24769 0.4444 0.25152
0.43728 0.44254 0.67035
0.66909 0.3306 0.62119
0.5477 0.93967 0.42198
0.60905 0.71284 0.63027
0.86313 0.93891 0.039344
0.3807 0.53096 0.44596
0.74896 0.021803 0.32819
0.1567 0.82039 0.7975
0.058124 0.2875 0.8556
0.33971 0.86738 0.92335
0.81718 0.86021 0.29594
0.37755 0.55063 0.90259
0.9726 0.45724 0.095264
0.60532 0.85002 0.39499
0.33824 0.34778 0.678
0.92798 0.23846 0.15342
0.89842 0.050938 0.065262
0.85071 0.13496 0.10637
0.25679 0.57813 0.096461
0.2855 0.90437 0.39589
0.77995 0.77117 0.98517
0.7014 0.70414 0.56895
0.49251 0.42241 0.28227
0.96767 0.95786 0.66862
0.47616 0.75559 0.61936
0.99491 0.366 0.91546
0.49058 0.55061 0.2074
0.50345 0.22143 0.050989
0.76877 0.25594 0.70306
0.38808 0.73525 0.15972
0.45326 0.31555 0.67106
0.13285 0.42241 0.068315
0.75851 0.74844 0.029748
0.56524 0.35309 0.84162
0.64864 0.44646 0.75393
0.79806 0.033935 0.097785
0.22045 0.72801 0.20848
0.85789 0.62138 0.086949
0.90473 0.12579 0.86574
0.29202 0.21546 0.024588
0.72587 0.30838 0.25157
0.33945 0.030952 0.61562
0.27268 0.20146 0.46839
0.17027 0.06743 0.73836
0.66402 0.00015225 0.19522
0.53585 0.63643 0.54826
0.82911 0.80275 0.45912
0.26736 0.39434 0.97137
0.17616 0.26274 0.3242
0.43119 0.28383 0.20261
0.47566 0.71364 0.56728
0.78522 0.19414 0.48313
0.13065 0.58008 0.29242
0.051356 0.24747 0.40515
0.62751 0.93591 0.50276
0.029088 0.56456 0.78968
0.13619 0.87961 0.093268
0.69456 0.99268 0.20148
0.51568 0.94625 0.024774
0.54258 0.47838 0.68136
0.80848 0.12499 0.73535
0.79369 0.064156 0.14947
0.50187 0.38666 0.3099
0.27663 0.55825 0.33182
0.11966 0.92243 0.1866
0.8866 0.93431 0.68762
0.97029 0.82481 0.56463
0.94253 0.18358 0.54421
0.63813 0.39311 0.93355
0.09059 0.91278 0.031417
0.074708 0.53417 0.66231
0.18245 0.45146 0.77517
0.031688 0.2856 0.64795
0.72494 0.62277 0.98473
0.14416 0.18177 0.95503
0.63593 0.92715 0.75075
0.78985 0.71397 0.096796
0.56625 0.83237 0.46907
0.37741 0.49648 0.10415
0.82159 0.96322 0.37215
0.30488 0.84331 0.069776
0.31937 0.1139 0.91174
0.78498 0.93618 0.59991
0.50374 0.68836 0.9813
0.261 0.30711 0.91276
0.73248 0.86065 0.50037
0.16295 0.94846 0.047345
0.92108 0.68184 0.69408
0.22222 0.5632 0.074033
0.083609 0.14997 0.53236
0.073702 0.98621 0.63131
0.76955 0.81502 0.84668
0.81768 0.91222 0.62368
0.74043 0.68397 0.075724
0.75825 0.30303 0.29975
0.96119 0.7318 0.88323
0.46642 0.27621 0.73346
0.787 0.61524 0.59063
0.42257 0.29485 0.62789
0.94373 0.51828 0.75978
0.0013144 0.73892 0.24736
0.98127 0.74402 0.221
0.57019 0.40346 0.2815
0.34647 0.16093 0.7775
0.5575 0.022401 0.41811
0.29978 0.10588 0.10836
0.15907 0.932 0.41429
0.66526 0.61555 0.91223
0.6842 0.63328 0.5639
0.79241 0.0066872 0.79453
0.34862 0.21487 0.30825
0.25007 0.081003 0.095809
0.345 0.16146 0.07924
0.32863 0.091804 0.55924
0.92749 0.13413 0.35913
0.75607 0.071796 0.80532
0.28824 0.26885 0.046511
0.60618 0.040067 0.62788
0.76603 0.74408 0.33897
0.84615 0.94483 0.0062903
0.90198 0.22136 0.92063
0.59571 0.60057 0.19111
0.068536 0.43609 0.59591
0.21804 0.17356 0.80343
0.86941 0.19489 0.22702
0.41422 0.18912 0.86235
0.66121 0.92989 0.89441
0.78348 0.49054 0.25931
0.24789 0.79632 0.80291
0.55443 0.1848 0.34428
0.22959 0.22778 0.14299
0.0069128 0.84981 0.78233
0.76664 0.49429 0.88102
0.021833 0.98574 0.83031
0.3931 0.17223 0.38363
0.25254 0.9501 0.19712
0.20422 0.38234 0.5122
0.66228 0.44763 0.27781
0.91474 0.35989 0.10312
0.0069025 0.14447 0.18975
0.74642 0.81664 0.12955
0.79967 0.18171 0.24061
0.9078 0.83297 0.5632
0.97457 0.4063 0.72827
0.11986 0.42145 0.75658
0.51897 0.53325 0.14686
0.82197 0.43032 0.12108
0.63702 0.0024213 0.16636
0.95391 0.66466 0.43843
0.94693 0.25679 0.29691
0.96661 0.59192 0.54257
0.067344 0.35785 0.92444
0.43753 0.54805 0.25258
0.32084 0.78069 0.5996
0.13405 0.55888 0.2413
0.13459 0.30169 0.33914
0.80595 0.46061 0.66437
0.52476 0.92092 0.056811
0.94426 0.88618 0.98918
0.98834 0.87947 0.90399
0.40989 0.97034 0.79406
0.37119 0.75231 0.084792
0.22685 0.015543 0.92822
0.44603 0.99234 0.55618
0.26622 0.45576 0.29219
0.4591 0.5205 0.012561
0.43291 0.088893 0.41829
0.25962 0.7851 0.99946
0.13371 0.71769 0.67354
0.41923 0.5454 0.54985
0.50686 0.74414 0.77195
0.32432 0.68732 0.31969
0.68469 0.61129 0.6893
0.44309 0.082342 0.36484
0.43566 0.377 0.073261
0.79302 0.40497 0.91789
0.81556 0.68738 0.10276
0.75211 0.40501 0.74845
0.78926 0.55447 0.78429
0.50127 0.61827 0.35314
0.55518 0.41746 0.021157
0.63075 0.84488 0.016422
0.097989 0.55151 0.33899
0.24568 0.81315 0.72046
0.61573 0.3154 0.9014
0.30496 0.85936 0.47366
0.76697 0.21737 0.055742
0.26723 0.11536 0.40777
0.039506 0.085872 0.33576
0.29656 0.15463 0.3041
0.55636 0.80218 0.29649
0.96907 0.96447 0.97142
0.68912 0.19679 0.57529
0.71788 0.77805 0.23737
0.55903 0.026483 0.91166
0.53335 0.11388 0.037761
0.87572 0.18662 0.55703
0.3931 0.92541 0.67447
0.45807 0.54971 0.93253
0.20825 0.031173 0.98848
0.75727 0.87656 0.17239
0.54669 0.95021 0.0029807
0.35739 0.4828 0.12321
0.701 0.4329 0.16428
0.10922 0.61981 0.57167
0.0066108 0.23026 0.56742
0.5973 0.70055 0.75767
0.65918 0.98099 0.11049
0.58001 0.16352 0.73538
0.90995 0.63078 0.53314
0.63601 0.64179 0.46407
0.52556 0.63653 0.59443
0.25962 0.98721 0.98321
0.051171 0.38691 0.36518
0.73195 0.26172 0.27546
0.16429 0.45781 0.32796
0.2804 0.11437 0.88782
0.25943 0.3581 0.77577
0.5471 0.78535 0.23168
0.54127 0.30512 0.65062
0.78811 0.73067 0.03186
0.86961 0.64508 0.97512
0.78754 0.83937 0.11479
0.96943 0.52061 0.14239
0.18047 0.38141 0.71914
0.9306 0.61925 0.3279
0.045152 0.60476 0.67792
0.24065 0.53555 0.10174
0.008855 0.73011 0.55987
0.67159 0.37631 0.12277
0.90481 0.12174 0.2509
0.57242 0.36692 0.57018
0.15546 0.81078 0.0088831
0.50237 0.8977 0.46846
0.56773 0.34671 0.29404
0.18827 0.015903 0.25934
0.3242 0.028783 0.51948
0.71604 0.84964 0.50107
0.55293 0.93956 0.064558
0.14228 0.76271 0.48483
0.38036 0.9658 0.8193
0.39657 0.49272 0.65966
0.57674 0.55494 0.19415
0.019402 0.65224 0.95887
0.57758 0.97313 0.95393
0.9322 0.90373 0.9069
0.10687 0.025045 0.38107
0.73215 0.57432 0.64179
0.97052 0.72938 0.82031
0.60889 0.15167 0.41696
0.71967 0.049482 0.71782
0.30275 0.53494 0.8323
0.45902 0.039868 0.6694
0.048029 0.49998 0.557
0.38535 0.21033 0.95982
0.36172 0.47599 0.8947
0.28758 0.65405 0.12593
0.81671 0.048973 0.45322
0.45053 0.85831 0.30337
0.80663 0.039508 0.12696
0.79017 0.64055 0.32043
0.28296 0.50643 0.3694
0.068309 0.57712 0.85705
0.054931 0.87905 0.18093
0.63752 0.18435 0.099291
0.42429 0.20146 0.017634
0.90553 0.13196 0.79786
0.41732 0.82221 0.25654
0.15406 0.73534 0.35983
0.54 0.89349 0.80853
0.93709 0.15968 0.56625
0.66096 0.42229 0.78208
0.39466 0.62891 0.48781
0.25899 0.59678 0.44157
0.84791 0.29574 0.33795
0.94506 0.78202 0.054782
0.377 0.38177 0.69234
0.06728 0.98477 0.017722
0.18158 0.20513 0.42142
0.57575 0.77975 0.88138
0.18589 0.84502 0.0014805
0.29145 0.46129 0.5007
0.46166 0.67913 0.7548
0.34698 0.79715 0.67551
0.31817 0.23557 0.1811
0.45991 0.75223 0.99602
0.23589 0.92006 0.89146
0.027752 0.99464 0.69599
0.65845 0.88296 0.10201
0.1588 0.5034 0.87168
0.80266 0.0058802 0.90835
0.40858 0.015086 0.90608
0.32739 0.095937 0.56714
0.74601 0.78696 0.40824
0.74635 0.55359 0.10064
0.17395 0.71952 0.54388
0.11754 0.22848 0.44019
0.17404 0.012692 0.63055
0.62741 0.12022 0.21449
0.84189 0.63298 0.63981
0.51008 0.015211 0.96842
0.16576 0.94027 0.69721
0.71431 0.99957 0.88416
0.90704 0.37822 0.92684
0.21854 0.89521 0.94526
0.87096 0.59005 0.51788
0.21184 0.83506 0.17818
0.83666 0.48235 0.82197
0.8593 0.059441 0.048909
0.52338 0.46034 0.12916
0.47736 0.31871 0.93192
0.88988 0.91016 0.28091
0.065076 0.89786 0.9441
0.50946 0.65117 0.68434
0.6208 0.24605 0.67415
0.73357 0.23402 0.3767
0.23 0.54843 0.8681
0.021872 0.39282 0.55854
0.13899 0.75479 0.30337
0.76951 0.39257 0.84924
0.96977 0.26542 0.78456
0.38679 0.34689 0.97063
0.99343 0.93426 0.97825
0.32639 0.37385 0.60327
0.13716 0.48253 0.014928
0.38475 0.23821 0.25693
0.56264 0.53125 0.31005
0.63384 0.21012 0.22729
0.54161 0.29521 0.72256
0.31499 0.53199 0.64914
0.15933 0.50758 0.92958
0.15262 0.49912 0.544
0.13695 0.9115 0.44185
0.7098 0.73034 0.64023
0.46486 0.89971 0.22018
0.11327 0.80492 0.049502
0.70088 0.44793 0.21045
0.17999 0.23501 0.86419
0.80367 0.067124 0.11084
0.51396 0.2842 0.96497
0.54844 0.43174 0.40366
0.20784 0.45512 0.18237
0.78459 0.97935 0.56284
0.52649 0.92691 0.41236
0.57102 0.59757 0.78841
0.42204 0.58368 0.077033
0.72116 0.11307 0.027241
0.073138 0.3992 0.84185
0.59486 0.94288 0.12068
0.86198 0.21432 0.95265
0.4488 0.17045 0.61217
0.65258 0.34688 0.26351
0.30347 0.62019 0.69648
0.60744 0.43574 0.52642
0.2789 0.41583 0.62898
0.79956 0.2852 0.62064
0.79617 0.90509 0.72012
0.95409 0.68278 0.045182
0.44434 0.10426 0.80583
0.45688 0.083478 0.39445
0.59982 0.013394 0.16501
0.84262 0.91876 0.89729
0.0312 0.36757 0.89234
0.18727 0.42202 0.84507
0.94359 0.57571 0.59701
0.94792 0.18602 0.41774
0.45298 0.022226 0.55704
0.81083 0.658 0.54389
0.92888 0.45865 0.71848
0.67272 0.19999 0.37279
0.37233 0.19652 0.24019
0.4057 0.69357 0.66881
0.43882 0.74742 0.036679
0.67865 0.54333 0.38558
0.46507 0.52586 0.78306
0.95326 0.40671 0.34348
0.3547 0.55697 0.56602
0.33902 0.73063 0.31826
0.89586 0.29351 0.99308
0.54543 0.78456 0.027324
0.74928 0.075819 0.27254
0.12488 0.47168 0.50234
0.45323 0.39916 0.36967
0.074749 0.91111 0.22194
0.66334 0.42802 0.38638
0.70365 0.94508 0.80427
0.91895 0.40453 0.78463
0.66007 0.2425 0.65541
0.6901 0.87262 0.35743
0.85372 0.49399 0.33902
0.4679 0.42357 0.0527
0.45848 0.55237 0.86286
0.8061 0.24857 0.073851
0.82477 0.25716 0.6846
0.19044 0.20974 0.57359
0.025673 0.58062 0.43095
0.056815 0.83515 0.48619
0.14294 0.85266 0.67853
0.17142 0.6439 0.20321
0.62584 0.98501 0.36828
0.029515 0.97898 0.75989
0.47233 0.68263 0.105
0.67844 0.78548 0.63913
0.11479 0.3488 0.75556
0.23606 0.78051 0.6462
0.28908 0.046397 0.66842
0.17276 0.35283 0.59229
0.32371 0.357 0.74032
0.80111 0.12974 0.46408
0.29963 0.98225 0.14358
0.77563 0.41575 0.31872
0.55277 0.40649 0.84785
0.55469 0.78269 0.65782
0.73065 0.4332 0.38896
0.77362 0.57628 0.91701
0.90085 0.65047 0.5276
0.13817 0.033011 0.15891
0.79408 0.40401 0.69301
0.18941 0.95894 0.78341
0.028974 0.59552 0.84645
0.12739 0.93308 0.45729
0.13374 0.93704 0.08896
0.12831 0.75574 0.13562
0.93526 0.53891 0.57132
0.27323 0.82429 0.62354
0.94268 0.010747 0.69715
0.63815 0.74652 0.41573
0.87253 0.10303 0.13873
0.36707 0.048411 0.3101
0.2362 0.18569 0.71236
0.18732 0.47284 0.21245
0.54565 0.0096356 0.7338
0.25512 0.85818 0.38934
0.30582 0.47349 0.021103
0.015549 0.14993 0.65083
0.58749 0.24545 0.63436
0.96256 0.056791 0.71843
0.84985 0.20524 0.80162
0.0079403 0.46549 0.68087
0.63403 0.46098 0.27699
0.35929 0.35106 0.65446
0.11406 0.441 0.76478
0.54082 0.32941 0.29198
0.41642 0.5721 0.81849
0.5171 0.99235 0.077722
0.88612 0.71785 0.90888
0.1494 0.361 0.99767
0.43468 0.57273 0.4188
0.059039 0.38033 0.26591
0.38103 0.37208 0.25996
0.72237 0.42427 0.34011
0.095119 0.74313 0.78858
0.66719 0.36008 0.63652
0.2964 0.62649 0.74723
0.59856 0.85287 0.90319
0.15185 0.12002 0.99997
0.43638 0.17434 0.97721
0.012682 0.95063 0.47598
0.22902 0.9775 0.47773
0.26368 0.252 0.068609
0.51139 0.28462 0.30473
0.21508 0.83829 0.9231
0.34611 0.8021 0.68617
0.74782 0.36996 0.28638
0.41362 0.36281 0.4339
0.055753 0.27174 0.36741
0.39003 0.25947 0.50026
0.47448 0.99439 0.15761
0.82532 0.046263 0.44758
0.30364 0.67633 0.91474
0.82179 0.50168 0.08877
0.56568 0.11329 0.37212
0.054382 0.46131 0.052508
0.26001 0.71863 0.82236
0.5891 0.9606 0.80505
0.47973 0.5289 0.84305
0.19865 0.93542 0.66203
0.23901 0.98959 0.96104
0.78019 0.46572 0.59784
0.61731 0.3638 0.87839
0.14413 0.090336 0.052432
0.71613 0.8442 0.023191
0.40151 0.41371 0.20523
0.46239 0.75736 0.57773
0.70728 0.55403 0.77126
0.40121 0.47624 0.87209
0.014385 0.26659 0.080858
0.07464 0.13528 0.85004
0.59107 0.077701 0.93043
0.446 0.84659 0.53762
0.92662 0.33704 0.052655
0.094893 0.67399 0.8868
0.37542 0.10443 0.15985
0.546 0.58737 0.79575
0.11168 0.1148 0.3073
0.90446 0.24935 0.65248
0.63328 0.41417 0.87429
0.90541 0.71547 0.14538
0.63055 0.86967 0.86935
0.014228 0.81543 0.86228
0.31648 0.23245 0.74752
0.11187 0.34634 0.66751
0.62946 0.96061 0.93169
0.060709 0.30131 0.39304
0.67399 0.1542 0.44407
0.47744 0.74444 0.21739
0.30555 0.28289 0.79689
0.51633 0.32884 0.87003
0.70703 0.0013319 0.72623
0.81361 0.56391 0.12906
0.31581 0.44413 0.094574
0.3113 0.16136 0.093669
0.34498 0.70346 0.19515
0.6663 0.54403 0.44247
0.86107 0.25462 0.31854
0.76178 0.39311 0.64422
0.87584 0.24462 0.74128
0.87124 0.58269 0.3328
0.17279 0.052743 0.81716
0.85022 0.60229 0.25296
0.95959 0.039971 0.61368
0.77021 0.86241 0.85654
0.87502 0.34311 0.17906
0.067413 0.11223 0.50453
0.64679 0.59343 0.71151
0.3241 0.63008 0.23082
0.64035 0.78138 0.80789
0.87975 0.73651 0.5789
0.37364 0.7916 0.97846
0.76674 0.64871 0.88833
0.16809 0.91191 0.76385
0.51972 0.60608 0.88326
0.62746 0.73645 0.32617
0.71391 0.71325 0.72313
0.3064 0.68999 0.46319
0.26369 0.91987 0.73997
0.916 0.96955 0.56125
0.61503 0.32893 0.41157
0.093175 0.094816 0.060425
0.6277 0.80653 0.50038
0.19203 0.68273 0.51568
0.77696 0.17325 0.51755
0.8645 0.48101 0.50629
0.33358 0.93934 0.42233
0.13541 0.13807 0.65497
0.76547 0.65965 0.72088
0.31861 0.19404 0.66603
0.25238 0.62648 0.49363
0.20007 0.62074 0.096119
0.06901 0.44098 0.81
0.55191 0.65895 0.39544
0.40381 0.44715 0.3721
0.75012 0.8516 0.31483
0.48718 0.70733 0.4099
0.38479 0.42855 0.51537
0.061409 0.6202 0.28274
0.21369 0.64119 0.47488
0.54387 0.88775 0.028603
0.41064 0.9936 0.13878
0.90096 0.72835 0.11884
0.05629 0.50582 0.511
0.44351 0.048929 0.93891
0.53781 0.10822 0.35668
0.13406 0.8583 0.9422
0.54095 0.91594 0.30462
0.85737 0.67166 0.22491
0.19802 0.46234 0.10881
0.15561 0.96139 0.60434
0.061378 0.079917 0.55553
0.66107 0.38591 0.60474
0.018603 0.016436 0.79268
0.2911 0.59191 0.020924
0.97382 0.56824 0.98873
0.76464 0.012271 0.086877
0.24368 0.58981 0.90048
0.68212 0.36022 0.2381
0.13785 0.025435 0.80926
0.62981 0.97858 0.61509
0.85701 0.13219 0.27921
0.8998 0.55058 0.65091
0.34837 0.86344 0.88688
0.48631 0.68254 0.38087
0.67952 0.034969 0.86858
0.70412 0.4402 0.9129
0.46088 0.43983 0.91111
0.36427 0.76611 0.88049
0.28027 0.99984 0.21597
0.076204 0.25747 0.014207
0.44462 0.88581 0.092013
0.16571 0.049722 0.71936
0.39875 0.33166 0.30838
0.92058 0.72955 0.21307
0.51133 0.4987 0.11714
0.91414 0.54666 0.3633
0.091934 0.22464 0.33281
0.99304 0.12298 0.60879
0.096434 0.48521 0.010912
0.31315 0.87404 0.088534
0.78538 0.64143 0.55498
0.6024 0.44824 0.96815
0.46591 0.13714 0.76444
0.29813 0.14116 0.34855
0.13317 0.9826 0.918
0.29501 0.97188 0.94703
0.16663 0.42889 0.33232
0.3171 0.75604 0.25261
0.10984 0.55859 0.44869
0.83209 0.75665 0.74019
0.97159 0.97592 0.097148
0.21827 0.041874 0.78191
0.70608 0.351 0.27068
0.039014 0.47665 0.12861
0.6163 0.17494 0.94915
0.66936 0.3559 0.81869
0.037202 0.88847 0.12651
0.0033346 0.069153 0.73112
0.14246 0.092747 0.23911
0.86241 0.2058 0.11163
0.27604 0.6152 0.23079
0.53169 0.27343 0.81744
0.52222 0.74779 0.19699
0.56762 0.30573 0.87828
0.33303 0.76544 0.76035
0.41342 0.25289 0.87532
0.41435 0.67102 0.026959
0.98392 0.13191 0.23735
0.057739 0.94245 0.41012
0.39654 0.44458 0.41155
0.79132 0.358 0.23758
0.59419 0.1698 0.87596
0.30956 0.49907 0.089086
0.9018 0.45217 0.66584
0.093127 0.066216 0.24757
0.31903 0.88788 0.11229
0.88696 0.90778 0.60288
0.65743 0.78265 0.96914
0.68452 0.47194 0.74581
0.47395 0.79614 0.11213
0.14124 0.87565 0.17565
0.95092 0.67225 0.3235
0.88263 0.070383 0.086871
0.43744 0.12447 0.76513
0.83496 0.42537 0.51528
0.32514 0.78267 0.16727
0.36764 0.58915 0.58067
0.79484 0.47214 0.21366
0.099309 0.033788 0.15562
0.95178 0.18007 0.59925
0.0014739 0.93182 0.29151
0.2954 0.59076 0.48478
0.048455 0.50634 0.20076
0.44274 0.21844 0.099033
0.78985 0.95205 0.3064
0.91352 0.36226 0.2027
0.53325 0.45855 0.84697
0.80408 0.83081 0.6981
0.56266 0.79067 0.34719
0.75088 0.44102 0.66061
0.0092304 0.62403 0.38438
0.47678 0.95551 0.54465
0.25033 0.66348 0.14027
0.30792 0.26649 0.66315
0.96695 0.72315 0.47009
0.2088 0.56108 0.43848
0.52048 0.97298 0.77934
0.22555 0.30087 0.10926
0.5672 0.49702 0.69475
0.99816 0.28395 0.060601
0.13187 0.074208 0.58173
0.95468 0.1114 0.37417
0.12388 0.075307 0.3591
0.18624 0.99619 0.71743
0.6465 0.5996 0.6979
0.12817 0.78897 0.79496
0.081321 0.86127 0.58494
0.65923 0.82707 0.45504
0.027399 0.93692 0.18888
0.98518 0.035853 0.16563
0.53933 0.13971 0.87743
0.37383 0.72544 0.42795
0.70673 0.87209 0.41207
0.94741 0.3741 0.50038
0.38228 0.21619 0.55481
0.69291 0.57601 0.42619
0.60207 0.025647 0.79368
0.77526 0.043505 0.41821
0.59183 0.93345 0.21929
0.37618 0.40165 0.65101
0.85065 0.78492 0.93082
0.22574 0.24263 0.20015
0.79696 0.60854 0.79395
0.99688 0.89318 0.39088
0.28131 0.62942 0.50184
0.71038 0.92415 0.91334
0.66464 0.9958 0.40549
0.41484 0.15009 0.63968
0.49827 0.024797 0.40063
0.94912 0.91126 0.17964
0.95318 0.148 0.86637
0.73292 0.089943 0.8892
0.38468 0.71569 0.50909
0.040083 0.17501 0.22834
0.58293 0.15972 0.92746
0.56471 0.47893 0.20073
0.35518 0.94873 0.67162
0.8802 0.74107 0.47032
0.62453 0.67233 0.84251
0.62402 0.070345 0.025456
0.29574 0.30611 0.45139
0.07468 0.93683 0.4189
0.29371 0.85694 0.046928
0.23474 0.89085 0.92597
0.3459 0.58859 0.96323
0.84849 0.16259 0.23661
0.16036 0.17605 0.37233
0.15786 0.74756 0.65951
0.50866 0.94529 0.30584
0.6033 0.65798 0.93143
0.1614 0.54383 0.18792
0.63545 0.59765 0.7124
0.84394 0.2346 0.10381
0.78227 0.81977 0.31232
0.26457 0.7885 0.78986
0.3147 0.58906 0.14447
0.1832 0.43626 0.31461
0.44747 0.54974 0.76636
0.32668 0.35297 0.29961
0.27982 0.99579 0.63747
0.93176 0.36496 0.72679
0.39969 0.96617 0.71053
0.37942 0.024741 0.66499
0.59285 0.77784 0.34448
0.068507 0.44018 0.74739
0.20524 0.6305 0.77858
0.72362 0.31402 0.67714
0.57515 0.92182 0.18507
0.20023 0.22332 0.30505
0.84348 0.37449 0.31398
0.42373 0.30814 0.99826
0.54475 0.037822 0.78579
0.52797 0.60517 0.70046
0.18511 0.83586 0.83418
0.08169 0.58825 0.36565
0.46409 0.36345 0.82969
0.030555 0.13989 0.76668
0.43498 0.11653 0.64725
0.55786 0.98122 0.030901
0.63878 0.54169 0.99954
0.034217 0.08651 0.77682
0.7099 0.2561 0.32746
0.16932 0.20978 0.042785
0.59338 0.31461 0.46198
0.60806 0.90375 0.57286
0.77236 0.5207 0.52721
0.056274 0.16224 0.25529
0.85473 0.14361 0.80967
0.38428 0.064053 0.75494
0.39962 0.85465 0.70834
0.32542 0.97446 0.82103
0.55539 0.92903 0.33306
0.29542 0.40952 0.48856
0.36612 0.90161 0.98101
0.34905 0.4845 0.94499
0.63022 0.46967 0.15252
0.66444 0.16783 0.99465
0.9921 0.082858 0.62701
0.94436 0.63316 0.082083
0.35035 0.31098 0.4458
0.193 0.46635 0.30606
0.91958 0.21107 0.44869
0.28869 0.0014457 0.27236
0.55086 0.79761 0.23882
0.91932 0.36805 0.9568
0.090049 0.015138 0.84024
0.2577 0.71498 0.88212
0.42705 0.21858 0.92671
0.57772 0.68872 0.95329
0.89952 0.24601 0.062521
0.21823 0.26608 0.90778
0.96703 0.13207 0.86857
0.43398 0.34421 0.011051
0.78482 0.75439 0.24095
0.52523 0.88924 0.92998
0.33128 0.71044 0.46018
0.43159 0.24648 0.44775
0.7179 0.45139 0.071533
0.91621 0.93122 0.50291
0.89003 0.61567 0.38078
0.13471 0.25829 0.34915
0.11991 0.6311 0.0065717
0.89345 0.69553 0.76974
0.65309 0.40366 0.97075
0.040278 0.19348 0.36556
0.50472 0.30707 0.43483
0.89445 0.69295 0.87089
0.38573 0.63036 0.090617
0.29205 0.24982 0.95874
0.23404 0.043422 0.52387
0.20095 0.53145 0.32772
0.38031 0.1762 0.49101
0.59479 0.5219 0.70915
0.26839 0.87128 0.19094
0.62244 0.61361 0.56248
0.80457 0.27143 0.61768
0.10397 0.85454 0.15208
0.72924 0.15746 0.95258
0.64859 0.25942 0.20994
0.47465 0.67058 0.87637
0.93291 0.22596 0.23243
0.096444 0.82597 0.45868
0.59911 0.3241 0.90472
0.23356 0.48839 0.58646
0.032328 0.76372 0.039817
0.57986 0.73768 0.27739
0.8422 0.63603 0.25137
0.5569 0.24914 0.21486
0.83988 0.73432 0.67613
0.20495 0.33951 0.55332
0.62125 0.30277 0.20279
0.17402 0.12714 0.98611
0.28954 0.01014 0.028451
0.018503 0.92493 0.65058
0.7015 0.91001 0.097227
0.95209 0.38215 0.38276
0.74901 0.70139 0.32433
0.75673 0.67234 0.089585
0.54209 0.12767 0.27071
0.28206 0.20097 0.89783
0.24487 0.90283 0.67703
0.28632 0.89184 0.4982
0.96313 0.37768 0.46075
0.2307 0.25019 0.55078
0.53732 0.6027 0.33068
0.20501 0.62545 0.18652
0.43404 0.019683 0.11515
0.14221 0.81973 0.5859
0.37558 0.51794 0.36434
0.79356 0.90943 0.075328
0.81282 0.11862 0.3306
0.90379 0.94615 0.59412
0.54038 0.92704 0.50184
0.81786 0.094805 0.7813
0.70842 0.41526 0.8234
0.043209 0.32286 0.89722
0.14595 0.84625 0.56958
0.23334 0.94795 0.039997
0.2467 0.72922 0.95749
0.17028 0.68385 0.89939
0.23506 0.64141 0.15234
0.27546 0.31588 0.66617
0.95161 0.73215 0.057671
0.34667 0.15765 0.86807
0.29732 0.76007 0.5683
0.40443 0.09191 0.31096
0.30224 0.96765 0.10337
0.75731 0.60897 0.053193
0.35974 0.89495 0.97007
0.1249 0.19415 0.094182
0.61718 0.98806 0.6559
0.35552 0.24131 0.37082
0.36294 0.22342 0.55848
0.068488 0.402 0.84939
0.86716 0.78091 0.79604
0.4579 0.83921 0.72325
0.077615 0.4095 0.57125
0.90492 0.4024 0.38513
0.2817 0.77175 0.87719
0.61388 0.24912 0.74655
0.66186 0.86574 0.067616
0.20002 0.68219 0.041245
0.95999 0.97739 0.85165
0.66511 0.18552 0.58698
0.5413 0.21618 0.66101
0.86897 0.31292 0.58798
0.55705 0.75201 0.25762
0.021398 0.36774 0.68049
0.48268 0.60446 0.89525
0.80799 0.38343 0.38113
0.73601 0.55049 0.31434
0.5723 0.38544 0.15775
0.0089849 0.66544 0.67092
0.71828 0.014714 0.53172
0.44943 0.81312 0.81094
0.65962 0.34986 0.51493
0.75321 0.71552 0.18858
0.80474 0.95889 0.77852
0.029156 0.50742 0.90495
0.77982 0.66617 0.5637
0.56735 0.42947 0.59977
0.076117 0.8495 0.61991
0.25162 0.65423 0.65054
0.13345 0.50426 0.13197
0.56447 0.36852 0.25155
0.54098 0.68525 0.69087
0.068921 0.099208 0.38126
0.98843 0.047647 0.55923
0.2511 0.86934 0.19737
0.31547 0.65187 0.78479
0.30066 0.61046 0.62049
0.042039 0.42195 0.22965
0.5279 0.50371 0.089151
0.25602 0.16414 0.98187
0.40871 0.093172 0.64713
0.94751 0.68532 0.72561
0.91928 0.14267 0.61478
0.12124 0.52871 0.97631
0.59194 0.0035728 0.25071
0.35965 0.42506 0.28108
0.71931 0.22434 0.5502
0.52355 0.65994 0.95575
0.26084 0.5031 0.25183
0.49308 0.60006 0.5382
0.85584 0.20017 0.58284
0.72441 0.1374 0.48368
0.19911 0.023789 0.48145
0.15729 0.93954 0.29156
0.37048 0.6955 0.1816
0.86227 0.55423 0.23275
0.68476 0.29541 0.48835
0.6342 0.042632 0.66451
0.14132 0.85376 0.042035
0.079302 0.59668 0.95052
0.87615 0.018527 0.44571
0.42043 0.93319 0.4304
0.48766 0.0097883 0.74758
0.46033 0.64096 0.24507
0.51568 0.78869 0.74284
0.27199 0.5265 0.28462
0.23158 0.29125 0.061385
0.89953 0.62833 0.61276
0.9087 0.42547 0.37855
0.60364 0.54637 0.81876
0.36524 0.1908 0.050719
0.59859 0.74449 0.88273
0.66849 0.21286 0.081084
0.89456 0.10012 0.83628
0.087336 0.89638 0.6967
0.53901 0.82234 0.60334
0.42845 0.88278 0.51372
0.61715 0.088124 0.2478
0.55888 0.70019 0.70422
0.22585 0.17022 0.54672
0.10452 0.83304 0.88159
0.0099777 0.72806 0.13456
0.059153 0.77589 0.86882
0.32265 0.7635 0.98089
0.77948 0.057099 0.36998
0.33548 0.60985 0.19444
0.61957 0.89847 0.48387
0.99289 0.51613 0.43807
0.64801 0.50617 0.15959
0.53978 0.25562 0.9235
0.23225 0.9716 0.4199
0.73983 0.58112 0.65926
0.88899 0.96839 0.41954
0.85981 0.041438 0.93549
0.59706 0.18863 0.7124
0.65475 0.51976 0.95256
0.91501 0.64085 0.91537
0.43318 0.34073 0.18268
0.28976 0.64833 0.66852
0.63188 0.35544 0.096526
0.29542 0.85043 0.98418
0.62203 0.5428 0.74369
0.047534 0.67308 0.21336
0.99461 0.25657 0.61739
0.20676 0.12134 0.3356
0.60736 0.040606 0.63261
0.34763 0.88794 0.51576
0.71774 0.75319 0.78692
0.027993 0.80208 0.50261
0.066842 0.44141 0.16454
0.92706 0.075173 0.50746
0.087772 0.15423 0.82281
0.3324 0.24724 0.42882
0.52618 0.079226 0.15769
0.24664 0.85316 0.67489
0.5429 0.15718 0.27663
0.78087 0.61666 0.37479
0.52188 0.52845 0.3968
0.93195 0.19122 0.13212
0.14711 0.75975 0.96623
0.41677 0.615 0.96116
0.28029 0.15206 0.01401
0.5981 0.45464 0.50937
0.036475 0.6821 0.19509
0.063687 0.28126 0.85302
0.32288 0.62486 0.85288
0.098379 0.94173 0.5743
0.17004 0.5668 0.31696
0.37116 0.69312 0.38675
0.039762 0.97859 0.76481
0.70924 0.89912 0.68043
0.64134 0.64848 0.1253
0.17406 0.98292 0.61984
0.062152 0.16381 0.68767
0.40666 0.50979 0.76028
0.46306 0.62735 0.22713
0.20267 0.8 0.22429
0.86955 0.41777 0.015016
0.59794 0.054834 0.58533
0.023014 0.51914 0.73277
0.89943 0.13453 0.86456
0.45295 0.36697 0.078845
0.058026 0.69662 0.4326
0.10627 0.12958 0.80479
0.99843 0.78585 0.50957
0.86633 0.050309 0.40499
0.61521 0.81562 0.46569
0.026944 0.86694 0.36857
0.32252 0.1969 0.56203
0.46378 0.60739 0.55235
0.099017 0.99668 0.18262
0.57099 0.042374 0.67291
0.32588 0.13882 0.64239
0.45049 0.22295 0.8163
0.57784 0.58301 0.26497
0.074844 0.67111 0.79917
0.057343 0.7232 0.31144
0.30096 0.50444 0.71528
0.52172 0.64463 0.91326
0.56188 0.036369 0.70356
0.24155 0.19385 0.08689
0.91272 0.74955 0.50784
0.82573 0.30818 0.77618
0.44455 0.74905 0.50325
0.98206 0.85204 0.058534
0.57827 0.099355 0.668
0.23442 0.59778 0.40968
0.81059 0.7206 0.0010482
0.45127 0.56871 0.67428
0.24997 0.23511 0.46138
0.95544 0.91064 0.95766
0.14265 0.95062 0.38658
0.51256 0.51632 0.26018
0.97193 0.70709 0.20808
0.64832 0.7988 0.63465
0.61467 0.19969 0.35434
0.46965 0.10684 0.13537
0.57778 0.61857 0.21673
0.91131 0.022224 0.60609
0.37622 0.037562 0.4438
0.22876 0.11536 0.48043
0.42352 0.8187 0.887
0.2736 0.3769 0.012599
0.44457 0.22916 0.57849
0.62752 0.36814 0.066439
0.53464 0.17454 0.29245
0.38544 0.77478 0.48701
0.87345 0.33003 0.17622
0.30035 0.31578 0.49605
0.40003 0.72459 0.62185
0.51772 0.58495 0.73198
0.061825 0.77776 0.98786
0.23137 0.35958 0.40204
0.11849 0.18473 0.88456
0.09878 0.57369 0.19036
0.89028 0.48309 0.6668
0.033389 0.42163 0.48939
0.83903 0.31733 0.46988
0.50727 0.97257 0.38486
0.11372 0.25822 0.14744
0.49045 0.5671 0.81722
0.59944 0.35207 0.11031
0.090216 0.31203 0.81554
0.97822 0.0093976 0.8204
0.65302 0.66813 0.26821
0.46113 0.88569 0.096805
0.86376 0.42132 0.55698
0.26283 0.85858 0.83154
0.82396 0.94799 0.67697
0.32898 0.37611 0.25518
0.9413 0.20329 0.27346
0.24411 0.17917 0.2768
0.95711 0.30629 0.72629
0.51082 0.85031 0.74999
0.56458 0.5256 0.35185
0.99372 0.82844 0.95373
0.77098 0.10688 0.95161
0.3138 0.61714 0.59993
0.057873 0.56683 0.7166
0.044074 0.26094 0.8968
0.81294 0.0023081 0.11423
0.41207 0.28726 0.43484
0.38416 0.82127 0.84435
0.52313 0.89512 0.6297
0.89215 0.99581 0.82025
0.40592 0.0084384 0.073181
0.60439 0.73284 0.97976
0.094804 0.084617 0.71974
0.33598 0.63335 0.96651
0.14484 0.80509 0.34797
0.24488 0.82996 0.59793
0.37897 0.56722 0.48322
0.27032 0.26004 0.83074
0.2156 0.78453 0.071397
0.63373 0.16921 0.46427
0.79972 0.27426 0.20843
0.20851 0.0049032 0.69878
0.89626 0.39756 0.73194
0.74571 0.026552 0.080464
0.53639 0.8547 0.39879
0.96997 0.20489 0.92252
0.56488 0.86035 0.43647
0.21769 0.056125 0.23732
0.85776 0.22351 0.22884
0.862 0.045281 0.27137
0.3133 0.75099 0.81006
0.32698 0.69806 0.44393
0.84001 0.91879 0.91014
0.49253 0.90892 0.44527
0.051902 0.80552 0.41411
0.77802 0.99968 0.59038
0.42667 0.80077 0.4439
0.27996 0.32292 0.073021
0.33351 0.025145 0.44834
0.36694 0.73282 0.90771
0.79479 0.47279 0.50118
0.038691 0.39259 0.16613
0.72667 0.86001 0.19241
0.87268 0.057462 0.52849
0.28581 0.38455 0.9142
0.65685 0.14184 0.035803
0.23189 0.045681 0.16379
0.62195 0.69799 0.15585
0.075124 0.91351 0.48841
0.96676 0.38355 0.38102
0.60997 0.24311 0.771
0.38372 0.9071 0.14093
0.03057 0.70202 0.67033
0.85757 0.89564 0.57511
0.60354 0.94797 0.81902
0.84784 0.93669 0.60729
0.50462 0.99679 0.73076
0.0079108 0.39694 0.74377
0.91907 0.65994 0.61926
0.4107 0.82295 0.24807
0.73237 0.62237 0.14483
0.15111 0.70051 0.48561
0.81523 0.48952 0.38478
0.9096 0.50882 0.047642
0.77794 0.77971 0.033204
0.75712 0.040486 0.63118
0.4052 0.90101 0.30944
0.7019 0.73205 0.1877
0.56546 0.61578 0.76585
0.58474 0.75519 0.61078
0.34491 0.28447 0.71997
0.70423 0.20625 0.59407
0.16086 0.65219 0.7228
0.0015139 0.92812 0.90879
0.562 0.80457 0.12708
0.54648 0.35044 0.76002
0.55083 0.27019 0.088641
0.69454 0.74462 0.68271
0.92749 0.72299 0.90911
0.94421 0.85672 0.15418
0.90326 0.91882 0.93923
0.60411 0.26901 0.94151
0.92621 0.68815 0.43648
0.11695 0.618 0.2459
0.3408 0.071553 0.071456
0.03673 0.1884 0.85374
0.53837 0.33557 0.59474
0.73723 0.31105 0.5758
0.18122 0.4202 0.35199
0.42625 0.087739 0.86463
0.098168 0.55987 0.067735
0.30322 0.66763 0.20106
0.78012 0.1153 0.90828
0.53696 0.31566 0.19261
0.76907 0.9808 0.13114
0.63894 0.88587 0.77505
0.89315 0.022758 0.71366
0.06069 0.86329 0.46905
0.17577 0.24499 0.35722
0.41633 0.4336 0.13509
0.73979 0.13538 0.11212
0.89295 0.2156 0.48263
0.025853 0.77473 0.9259
0.13756 0.087186 0.22615
0.42409 0.40038 0.089469
0.76457 0.59011 0.50707
0.52444 0.19652 0.30097
0.75448 0.69681 0.77496
0.1698 0.59297 0.0073747
0.67273 0.46419 0.25114
0.61865 0.24115 0.66521
0.0068461 0.41277 0.19606
0.74023 0.77049 0.99362
0.99174 0.035339 0.75618
0.12818 0.60755 0.32847
0.36058 0.079474 0.54122
0.19107 0.41538 0.47835
0.7144 0.98548 0.21677
0.17787 0.84265 0.7935
0.98685 0.052403 0.63821
0.016999 0.72752 0.76457
0.039796 0.11496 0.73981
0.80433 0.48538 0.12716
0.85979 0.86859 0.68403
0.56625 0.016704 0.74728
0.75411 0.81891 0.35808
0.51951 0.78387 0.19062
0.5859 0.19371 0.57439
0.19073 0.91284 0.26235
0.50344 0.68369 0.39173
0.050915 0.88839 0.32104
0.056096 0.71287 0.27014
0.3352 0.48489 0.0046972
0.6309 0.83322 0.31285
0.89198 0.090746 0.66109
0.6734 0.025492 0.50692
0.68527 0.33573 0.87813
0.69574 0.48692 0.076109
0.79983 0.22536 0.96439
0.66061 0.55471 0.13291
0.51994 0.68115 0.59695
0.33174 0.83494 0.37865
0.93417 0.89587 0.39813
0.24648 0.4376 0.78825
0.51121 0.39966 0.53833
0.74032 0.44012 0.4534
0.25417 0.30963 0.01423
0.84558 0.44695 0.31825
0.53815 0.96439 0.27301
0.91014 0.46235 0.40191
0.35071 0.49599 0.22999
0.93532 0.02154 0.68343
0.92772 0.19229 0.3645
0.5877 0.89813 0.19266
0.10176 0.38929 0.12057
0.36688 0.10205 0.65173
0.27585 0.3497 0.31207
0.2661 0.17855 0.070278
0.22654 0.24909 0.64996
0.0013208 0.64098 0.8489
0.89301 0.97575 0.10133
0.4535 0.92066 0.34236
0.57842 0.053807 0.21163
0.31561 0.90308 0.091206
0.99402 0.19 0.25262
0.98389 0.99262 0.20702
0.96455 0.3265 0.61605
0.66627 0.22754 0.89185
0.72616 0.94371 0.71641
0.33404 0.81085 0.86522
0.52277 0.92444 0.83825
0.27335 0.7185 0.019567
0.71838 0.87926 0.33124
0.77802 0.86506 0.056253
0.081064 0.35743 0.67265
0.22158 0.13628 0.23808
0.20396 0.80578 0.47493
0.6241 0.68112 0.055083
0.72521 0.43139 0.84048
0.83436 0.94712 0.59987
0.018895 0.95117 0.27945
0.20212 0.032081 0.96504
0.46909 0.27617 0.087734
0.3784 0.067753 0.046899
0.34039 0.82695 0.61763
0.063851 0.39632 0.96851
0.76134 0.58118 0.12633
0.40266 0.34353 0.3714
0.67429 0.97121 0.27367
0.55108 0.60341 0.12912
0.051457 0.66764 0.38599
0.3075 0.86333 0.31319
0.96544 0.42009 0.85462
0.93148 0.073411 0.79315
0.37803 0.8714 0.62374
0.61767 0.69465 0.55212
0.56253 0.84142 0.23643
0.83056 0.67625 0.23723
0.9577 0.7014 0.30579
0.075506 0.89542 0.22364
0.88802 0.58741 0.16094
0.56245 0.3252 0.89046
0.19436 0.99485 0.77615
0.22145 0.20754 0.87944
0.70576 0.28625 0.8005
0.59676 0.83311 0.083407
0.5863 0.77025 0.163
0.96849 0.20058 0.026172
0.58174 0.76477 0.32241
0.0998 0.61592 0.2047
0.1666 0.96427 0.5274
0.10209 0.50369 0.033912
0.14625 0.4787 0.15756
0.67156 0.5857 0.60388
0.63985 0.97959 0.57921
0.37244 0.3491 0.54035
0.16287 0.261 0.95621
0.38952 0.58994 0.63089
0.79998 0.74538 0.60011
0.39979 0.081984 0.047951
0.75512 0.37496 0.22566
0.29521 0.087008 0.35826
0.64001 0.31815 0.73594
0.88512 0.45323 0.52798
0.20964 0.16108 0.70963
0.48036 0.059868 0.49564
0.11299 0.44487 0.79407
0.13237 0.28527 0.20674
0.064002 0.19918 0.94185
0.079297 0.50981 0.65639
0.62695 0.019478 0.24335
0.41133 0.8301 0.27948
0.63859 0.20039 0.094481
0.85656 0.42656 0.68035
0.76358 0.73309 0.93105
0.97616 0.5268 0.57284
0.78154 0.2693 0.91074
0.93558 0.76784 0.63792
0.73915 0.95441 0.97212
0.25362 0.11769 0.63735
0.71925 0.024888 0.80082
0.69351 0.42204 0.87936
0.77332 0.064384 0.95679
0.74722 0.1256 0.31058
0.31838 0.092418 0.60443
0.51043 0.23269 0.27423
0.77307 0.21119 0.073043
0.57282 0.60981 0.14524
0.95385 0.39453 0.32552
0.17157 0.7267 0.55212
0.90724 0.9613 0.17766
0.75222 0.75022 0.55591
0.28618 0.07874 0.66467
0.62741 0.86795 0.54376
0.46283 0.36277 0.87804
0.12944 0.79701 0.08105
0.54938 0.78639 0.027187
0.96951 0.33135 0.65719
0.44214 0.94999 0.17062
0.59096 0.82849 0.48642
0.11097 0.62913 0.58726
0.19985 0.29562 0.31401
0.16296 0.617 0.3582
0.036877 0.9885 0.97287
0.27272 0.34401 0.11553
0.23013 0.23964 0.8954
0.35854 0.00039711 0.8445
0.13434 0.90929 0.12158
0.99859 0.62754 0.15214
0.51352 0.78623 0.75232
0.38785 0.74872 0.17673
0.24985 0.6169 0.59635
0.36475 0.1834 0.45936
0.39906 0.84359 0.78039
0.9263 0.71599 0.7679
0.49547 0.6518 0.55994
0.60919 0.61281 0.86976
0.0048085 0.87379 0.22118
0.58773 0.79268 0.80955
0.77746 0.72442 0.14423
0.65718 0.40915 0.57476
0.52831 0.99765 0.38376
0.82577 0.62381 0.6506
0.96243 0.35317 0.54716
0.31374 0.18272 0.38291
0.79709 0.3209 0.15275
0.28518 0.25561 0.22683
0.014895 0.94108 0.31477
0.09415 0.89291 0.10888
0.32872 0.98805 0.3495
0.30557 0.95247 0.37341
0.018022 0.87421 0.28792
0.16221 0.16224 0.93716
0.44399 0.14669 0.98307
0.76677 0.6498 0.91483
0.68126 0.79009 0.26587
0.71454 0.072302 0.069864
0.45978 0.24452 0.33639
0.91927 0.010707 0.88438
0.98894 0.23254 0.0081197
0.9326 0.25485 0.14736
0.46152 0.91219 0.28848
0.90492 0.36755 0.13265
0.38645 0.038034 0.041011
0.60302 0.65083 0.90215
0.56032 0.81637 0.96499
0.84584 0.08375 0.42429
0.2848 0.011481 0.15436
0.66332 0.36562 0.98942
0.60226 0.41277 0.69859
0.65646 0.41602 0.68423
0.30993 0.46338 0.3964
0.33164 0.46601 0.99088
0.1882 0.54816 0.90994
0.10068 0.53269 0.14613
0.28656 0.50769 0.43419
0.35483 0.78109 0.4075
0.53576 0.28997 0.93962
0.99083 0.5505 0.39375
0.028178 0.57467 0.79885
0.70953 0.20389 0.0026891
0.90516 0.55524 0.52118
0.86583 0.21412 0.71139
0.11917 0.54916 0.2222
0.95528 0.06977 0.28874
0.4409 0.86045 0.80356
0.87576 0.20838 0.89439
0.86495 0.23863 0.81161
0.35515 0.38059 0.65858
0.63115 0.28737 0.98724
0.86455 0.75052 0.67325
0.020992 0.31894 0.20228
0.07682 0.10737 0.14457
0.37671 0.80614 0.20123
0.14919 0.25206 0.099111
0.034097 0.5039 0.62332
0.78225 0.039851 0.67961
0.32725 0.62419 0.31984
0.81748 0.38744 0.18231
0.17362 0.30827 0.91322
0.67612 0.33205 0.11641
0.8756 0.93159 0.97474
0.75716 0.46799 0.20677
0.22963 7.0993e-05 0.91638
0.35894 0.72578 0.66908
0.36316 0.39948 0.22453
0.26744 0.022924 0.15113
0.3373 0.63774 0.71745
0.086961 0.43935 0.098317
0.45156 0.59177 0.56049
0.45466 0.61798 0.52621
0.029036 0.4541 0.21912
0.6371 0.049085 0.66698
0.059459 0.71969 0.45215
0.1692 0.74009 0.49037
0.68468 0.4048 0.46776
0.55457 0.051413 0.77387
0.0060358 0.948 0.36262
0.28809 0.87739 0.71539
0.37661 0.82765 0.15733
0.14649 0.44864 0.49859
0.074534 0.88447 0.1966
0.46074 0.85372 0.18312
0.37039 0.64774 0.67719
0.82456 0.50678 0.89707
0.53754 0.076023 0.60226
0.81752 0.36241 0.25987
0.46038 0.23109 0.58242
0.014034 0.86018 0.47696
0.0049832 0.63439 0.86832
0.16623 0.73146 0.67578
0.36594 0.15636 0.60743
0.71821 0.94965 0.88023
